#!ascii version in FreeSurfer format (SUMA)
3528 6720
67.685440  5.534734  9.708218  0
68.365280  5.954899  8.608219  0
66.585442  4.854896  10.128380  0
67.685440  4.175058  9.708218  0
65.485443  5.534734  9.708218  0
65.485443  4.175058  9.708218  0
64.805603  5.954899  8.608219  0
67.265274  3.075057  9.028380  0
68.365280  3.754894  8.608219  0
65.905609  3.075057  9.028380  0
66.585442  2.654896  7.928380  0
64.805603  3.754894  8.608219  0
64.385445  4.854896  7.928380  0
64.805603  3.754894  7.248541  0
68.365280  3.754894  7.248541  0
67.265274  3.075057  6.828380  0
65.905609  3.075057  6.828380  0
68.785439  4.854896  7.928380  0
66.958115  14.373870  10.773634  0
66.958115  14.373870  14.516499  0
66.958115  12.060653  14.516499  0
66.958115  12.060653  10.773634  0
65.801506  15.088694  12.645066  0
65.801506  11.345829  12.645066  0
68.114723  15.088694  12.645066  0
68.114723  11.345829  12.645066  0
68.829544  13.217261  13.801676  0
65.086685  13.217261  11.488457  0
65.086685  13.217261  13.801676  0
68.829544  13.217261  11.488457  0
66.278275  14.997098  11.545067  0
66.958115  15.417261  12.645066  0
67.637955  14.997098  11.545067  0
65.858116  13.897099  10.865229  0
65.178276  14.317260  11.965230  0
66.958115  13.217261  10.445066  0
65.858116  12.537423  10.865229  0
68.058113  13.897099  10.865229  0
68.058113  12.537423  10.865229  0
68.737953  14.317260  11.965230  0
67.637955  14.997098  13.745066  0
66.278275  14.997098  13.745066  0
68.058113  13.897099  14.424904  0
68.737953  14.317260  13.324903  0
66.958115  13.217261  14.845066  0
68.058113  12.537423  14.424904  0
65.858116  13.897099  14.424904  0
65.858116  12.537423  14.424904  0
65.178276  14.317260  13.324903  0
67.637955  11.437425  13.745066  0
68.737953  12.117263  13.324903  0
66.278275  11.437425  13.745066  0
66.958115  11.017262  12.645066  0
65.178276  12.117263  13.324903  0
64.758118  13.217261  12.645066  0
65.178276  12.117263  11.965230  0
68.737953  12.117263  11.965230  0
67.637955  11.437425  11.545067  0
66.278275  11.437425  11.545067  0
69.158112  13.217261  12.645066  0
66.410446  22.968849  16.320927  0
66.410446  22.968849  20.063789  0
66.410446  20.655632  20.063789  0
66.410446  20.655632  16.320927  0
65.253838  23.683672  18.192358  0
65.253838  19.940809  18.192358  0
67.567055  23.683672  18.192358  0
67.567055  19.940809  18.192358  0
68.281876  21.812241  19.348969  0
64.539017  21.812241  17.035748  0
64.539017  21.812241  19.348969  0
68.281876  21.812241  17.035748  0
65.730606  23.592075  17.092358  0
66.410446  24.012241  18.192358  0
67.090286  23.592075  17.092358  0
65.310448  22.492079  16.412519  0
64.630608  22.912239  17.512522  0
66.410446  21.812241  15.992358  0
65.310448  21.132402  16.412519  0
67.510445  22.492079  16.412519  0
67.510445  21.132402  16.412519  0
68.190285  22.912239  17.512522  0
67.090286  23.592075  19.292358  0
65.730606  23.592075  19.292358  0
67.510445  22.492079  19.972197  0
68.190285  22.912239  18.872194  0
66.410446  21.812241  20.392359  0
67.510445  21.132402  19.972197  0
65.310448  22.492079  19.972197  0
65.310448  21.132402  19.972197  0
64.630608  22.912239  18.872194  0
67.090286  20.032406  19.292358  0
68.190285  20.712242  18.872194  0
65.730606  20.032406  19.292358  0
66.410446  19.612240  18.192358  0
64.630608  20.712242  18.872194  0
64.210449  21.812241  18.192358  0
64.630608  20.712242  17.512522  0
68.190285  20.712242  17.512522  0
67.090286  20.032406  17.092358  0
65.730606  20.032406  17.092358  0
68.610443  21.812241  18.192358  0
44.765560  -30.736931  -18.151073  0
44.765560  -30.736931  -14.408211  0
44.765560  -33.050148  -14.408211  0
44.765560  -33.050148  -18.151073  0
43.608952  -30.022108  -16.279642  0
43.608952  -33.764973  -16.279642  0
45.922169  -30.022108  -16.279642  0
45.922169  -33.764973  -16.279642  0
46.636993  -31.893539  -15.123034  0
42.894127  -31.893539  -17.436251  0
42.894127  -31.893539  -15.123034  0
46.636993  -31.893539  -17.436251  0
44.085724  -30.113703  -17.379642  0
44.765560  -29.693539  -16.279642  0
45.445396  -30.113703  -17.379642  0
43.665558  -31.213703  -18.059479  0
42.985722  -30.793539  -16.959480  0
44.765560  -31.893539  -18.479643  0
43.665558  -32.573376  -18.059479  0
45.865562  -31.213703  -18.059479  0
45.865562  -32.573376  -18.059479  0
46.545399  -30.793539  -16.959480  0
45.445396  -30.113703  -15.179642  0
44.085724  -30.113703  -15.179642  0
45.865562  -31.213703  -14.499805  0
46.545399  -30.793539  -15.599804  0
44.765560  -31.893539  -14.079642  0
45.865562  -32.573376  -14.499805  0
43.665558  -31.213703  -14.499805  0
43.665558  -32.573376  -14.499805  0
42.985722  -30.793539  -15.599804  0
45.445396  -33.673378  -15.179644  0
46.545399  -32.993538  -15.599804  0
44.085724  -33.673378  -15.179644  0
44.765560  -34.093540  -16.279642  0
42.985722  -32.993538  -15.599804  0
42.565559  -31.893539  -16.279642  0
42.985722  -32.993538  -16.959480  0
46.545399  -32.993538  -16.959480  0
45.445396  -33.673378  -17.379641  0
44.085724  -33.673378  -17.379641  0
46.965561  -31.893539  -16.279642  0
51.025593  -23.914898  -17.237545  0
51.025593  -23.914898  -13.494682  0
51.025593  -26.228115  -13.494682  0
51.025593  -26.228115  -17.237545  0
49.868984  -23.200075  -15.366114  0
49.868984  -26.942938  -15.366114  0
52.182201  -23.200075  -15.366114  0
52.182201  -26.942938  -15.366114  0
52.897026  -25.071507  -14.209506  0
49.154160  -25.071507  -16.522722  0
49.154160  -25.071507  -14.209506  0
52.897026  -25.071507  -16.522722  0
50.345757  -23.291670  -16.466114  0
51.025593  -22.871506  -15.366114  0
51.705429  -23.291670  -16.466114  0
49.925591  -24.391670  -17.145950  0
49.245754  -23.971506  -16.045952  0
51.025593  -25.071507  -17.566114  0
49.925591  -25.751343  -17.145950  0
52.125595  -24.391670  -17.145950  0
52.125595  -25.751343  -17.145950  0
52.805431  -23.971506  -16.045952  0
51.705429  -23.291670  -14.266113  0
50.345757  -23.291670  -14.266113  0
52.125595  -24.391670  -13.586277  0
52.805431  -23.971506  -14.686275  0
51.025593  -25.071507  -13.166114  0
52.125595  -25.751343  -13.586277  0
49.925591  -24.391670  -13.586277  0
49.925591  -25.751343  -13.586277  0
49.245754  -23.971506  -14.686275  0
51.705429  -26.851343  -14.266113  0
52.805431  -26.171507  -14.686275  0
50.345757  -26.851343  -14.266113  0
51.025593  -27.271507  -15.366114  0
49.245754  -26.171507  -14.686275  0
48.825592  -25.071507  -15.366114  0
49.245754  -26.171507  -16.045952  0
52.805431  -26.171507  -16.045952  0
51.705429  -26.851343  -16.466114  0
50.345757  -26.851343  -16.466114  0
53.225594  -25.071507  -15.366114  0
55.303230  -14.965927  -14.427778  0
55.303230  -14.965927  -10.684914  0
55.303230  -17.279144  -10.684914  0
55.303230  -17.279144  -14.427778  0
54.146622  -14.251104  -12.556346  0
54.146622  -17.993967  -12.556346  0
56.459839  -14.251104  -12.556346  0
56.459839  -17.993967  -12.556346  0
57.174664  -16.122536  -11.399738  0
53.431797  -16.122536  -13.712954  0
53.431797  -16.122536  -11.399738  0
57.174664  -16.122536  -13.712954  0
54.623394  -14.342698  -13.656345  0
55.303230  -13.922536  -12.556346  0
55.983067  -14.342698  -13.656345  0
54.203232  -15.442698  -14.336184  0
53.523392  -15.022537  -13.236182  0
55.303230  -16.122536  -14.756346  0
54.203232  -16.802374  -14.336184  0
56.403229  -15.442698  -14.336184  0
56.403229  -16.802374  -14.336184  0
57.083069  -15.022537  -13.236182  0
55.983067  -14.342698  -11.456347  0
54.623394  -14.342698  -11.456347  0
56.403229  -15.442698  -10.776508  0
57.083069  -15.022537  -11.876510  0
55.303230  -16.122536  -10.356346  0
56.403229  -16.802374  -10.776508  0
54.203232  -15.442698  -10.776508  0
54.203232  -16.802374  -10.776508  0
53.523392  -15.022537  -11.876510  0
55.983067  -17.902372  -11.456346  0
57.083069  -17.222534  -11.876509  0
54.623394  -17.902372  -11.456346  0
55.303230  -18.322536  -12.556346  0
53.523392  -17.222534  -11.876509  0
53.103230  -16.122536  -12.556346  0
53.523392  -17.222534  -13.236183  0
57.083069  -17.222534  -13.236183  0
55.983067  -17.902372  -13.656346  0
54.623394  -17.902372  -13.656346  0
57.503231  -16.122536  -12.556346  0
61.539360  -9.261130  -10.312166  0
61.539360  -9.261130  -6.569303  0
61.539360  -11.574347  -6.569303  0
61.539360  -11.574347  -10.312166  0
60.382751  -8.546307  -8.440735  0
60.382751  -12.289171  -8.440735  0
62.695969  -8.546307  -8.440735  0
62.695969  -12.289171  -8.440735  0
63.410793  -10.417739  -7.284127  0
59.667927  -10.417739  -9.597342  0
59.667927  -10.417739  -7.284127  0
63.410793  -10.417739  -9.597342  0
60.859524  -8.637901  -9.540735  0
61.539360  -8.217739  -8.440735  0
62.219196  -8.637901  -9.540735  0
60.439362  -9.737901  -10.220572  0
59.759521  -9.317740  -9.120571  0
61.539360  -10.417739  -10.640735  0
60.439362  -11.097577  -10.220572  0
62.639359  -9.737901  -10.220572  0
62.639359  -11.097577  -10.220572  0
63.319199  -9.317740  -9.120571  0
62.219196  -8.637901  -7.340735  0
60.859524  -8.637901  -7.340735  0
62.639359  -9.737901  -6.660897  0
63.319199  -9.317740  -7.760898  0
61.539360  -10.417739  -6.240735  0
62.639359  -11.097577  -6.660897  0
60.439362  -9.737901  -6.660897  0
60.439362  -11.097577  -6.660897  0
59.759521  -9.317740  -7.760898  0
62.219196  -12.197577  -7.340735  0
63.319199  -11.517737  -7.760898  0
60.859524  -12.197577  -7.340735  0
61.539360  -12.617739  -8.440735  0
59.759521  -11.517737  -7.760898  0
59.339359  -10.417739  -8.440735  0
59.759521  -11.517737  -9.120571  0
63.319199  -11.517737  -9.120571  0
62.219196  -12.197577  -9.540735  0
60.859524  -12.197577  -9.540735  0
63.739361  -10.417739  -8.440735  0
63.914688  1.337237  -6.384589  0
63.914688  1.337237  -2.641725  0
63.914688  -0.975979  -2.641725  0
63.914688  -0.975979  -6.384589  0
62.758080  2.052061  -4.513157  0
62.758080  -1.690803  -4.513157  0
65.071297  2.052061  -4.513157  0
65.071297  -1.690803  -4.513157  0
65.786118  0.180629  -3.356547  0
62.043255  0.180629  -5.669765  0
62.043255  0.180629  -3.356549  0
65.786118  0.180629  -5.669766  0
63.234852  1.960467  -5.613157  0
63.914688  2.380629  -4.513157  0
64.594528  1.960466  -5.613156  0
62.814690  0.860467  -6.292995  0
62.134850  1.280628  -5.192994  0
63.914688  0.180629  -6.713157  0
62.814690  -0.499209  -6.292995  0
65.014687  0.860467  -6.292995  0
65.014687  -0.499209  -6.292995  0
65.694527  1.280628  -5.192994  0
64.594528  1.960465  -3.413157  0
63.234852  1.960466  -3.413157  0
65.014687  0.860467  -2.733319  0
65.694527  1.280628  -3.833320  0
63.914688  0.180629  -2.313157  0
65.014687  -0.499209  -2.733319  0
62.814690  0.860467  -2.733319  0
62.814690  -0.499209  -2.733319  0
62.134850  1.280628  -3.833320  0
64.594528  -1.599207  -3.413157  0
65.694527  -0.919370  -3.833320  0
63.234852  -1.599208  -3.413157  0
63.914688  -2.019371  -4.513157  0
62.134850  -0.919370  -3.833320  0
61.714687  0.180629  -4.513157  0
62.134850  -0.919370  -5.192994  0
65.694527  -0.919370  -5.192994  0
64.594528  -1.599208  -5.613156  0
63.234852  -1.599208  -5.613157  0
66.114685  0.180629  -4.513157  0
66.394432  9.954174  -1.649476  0
66.394432  9.954174  2.093388  0
66.394432  7.640957  2.093388  0
66.394432  7.640957  -1.649476  0
65.237823  10.668997  0.221956  0
65.237823  6.926134  0.221956  0
67.551041  10.668997  0.221956  0
67.551041  6.926134  0.221956  0
68.265862  8.797565  1.378566  0
64.523003  8.797565  -0.934654  0
64.523003  8.797565  1.378566  0
68.265862  8.797565  -0.934654  0
65.714600  10.577404  -0.878045  0
66.394432  10.997565  0.221956  0
67.074265  10.577404  -0.878045  0
65.294434  9.477404  -1.557882  0
64.614594  9.897568  -0.457883  0
66.394432  8.797565  -1.978044  0
65.294434  8.117727  -1.557882  0
67.494431  9.477404  -1.557882  0
67.494431  8.117727  -1.557882  0
68.174271  9.897568  -0.457883  0
67.074265  10.577404  1.321957  0
65.714600  10.577404  1.321957  0
67.494431  9.477404  2.001794  0
68.174271  9.897568  0.901795  0
66.394432  8.797565  2.421956  0
67.494431  8.117727  2.001794  0
65.294434  9.477404  2.001794  0
65.294434  8.117727  2.001794  0
64.614594  9.897568  0.901795  0
67.074265  7.017727  1.321957  0
68.174271  7.697563  0.901795  0
65.714600  7.017727  1.321957  0
66.394432  6.597566  0.221956  0
64.614594  7.697563  0.901795  0
64.194435  8.797565  0.221956  0
64.614594  7.697563  -0.457883  0
68.174271  7.697563  -0.457883  0
67.074265  7.017727  -0.878045  0
65.714600  7.017727  -0.878045  0
68.594429  8.797565  0.221956  0
66.606026  18.132526  0.865717  0
66.606026  18.132526  4.608581  0
66.606026  15.819309  4.608581  0
66.606026  15.819309  0.865717  0
65.449417  18.847349  2.737149  0
65.449417  15.104486  2.737149  0
67.762634  18.847349  2.737149  0
67.762634  15.104486  2.737149  0
68.477455  16.975918  3.893758  0
64.734596  16.975918  1.580539  0
64.734596  16.975918  3.893758  0
68.477455  16.975918  1.580539  0
65.926193  18.755756  1.637148  0
66.606026  19.175919  2.737149  0
67.285858  18.755756  1.637148  0
65.506027  17.655756  0.957311  0
64.826187  18.075920  2.057310  0
66.606026  16.975918  0.537149  0
65.506027  16.296080  0.957311  0
67.706024  17.655756  0.957311  0
67.706024  16.296080  0.957311  0
68.385864  18.075920  2.057310  0
67.285858  18.755756  3.837150  0
65.926193  18.755756  3.837150  0
67.706024  17.655756  4.516987  0
68.385864  18.075920  3.416988  0
66.606026  16.975918  4.937149  0
67.706024  16.296080  4.516987  0
65.506027  17.655756  4.516987  0
65.506027  16.296080  4.516987  0
64.826187  18.075920  3.416988  0
67.285858  15.196079  3.837150  0
68.385864  15.875916  3.416988  0
65.926193  15.196079  3.837150  0
66.606026  14.775918  2.737149  0
64.826187  15.875916  3.416988  0
64.406029  16.975918  2.737149  0
64.826187  15.875916  2.057310  0
68.385864  15.875916  2.057310  0
67.285858  15.196079  1.637148  0
65.926193  15.196079  1.637148  0
68.806023  16.975918  2.737149  0
64.915245  28.676352  5.159842  0
64.915245  28.676352  8.902706  0
64.915245  26.363134  8.902706  0
64.915245  26.363134  5.159842  0
63.758636  29.391174  7.031274  0
63.758636  25.648312  7.031274  0
66.071854  29.391174  7.031274  0
66.071854  25.648312  7.031274  0
66.786674  27.519743  8.187883  0
63.043812  27.519743  5.874666  0
63.043812  27.519743  8.187881  0
66.786674  27.519743  5.874664  0
64.235413  29.299582  5.931273  0
64.915245  29.719744  7.031274  0
65.595078  29.299582  5.931273  0
63.815247  28.199581  5.251436  0
63.135406  28.619741  6.351437  0
64.915245  27.519743  4.831274  0
63.815247  26.839905  5.251436  0
66.015244  28.199581  5.251436  0
66.015244  26.839905  5.251436  0
66.695084  28.619745  6.351435  0
65.595078  29.299582  8.131274  0
64.235413  29.299582  8.131274  0
66.015244  28.199581  8.811111  0
66.695084  28.619745  7.711112  0
64.915245  27.519743  9.231274  0
66.015244  26.839905  8.811111  0
63.815247  28.199581  8.811111  0
63.815247  26.839905  8.811111  0
63.135406  28.619741  7.711111  0
65.595078  25.739904  8.131274  0
66.695084  26.419741  7.711112  0
64.235413  25.739904  8.131274  0
64.915245  25.319742  7.031274  0
63.135406  26.419744  7.711111  0
62.715244  27.519743  7.031274  0
63.135406  26.419744  6.351437  0
66.695084  26.419741  6.351435  0
65.595078  25.739904  5.931273  0
64.235413  25.739904  5.931273  0
67.115242  27.519743  7.031274  0
25.842098  -29.953426  72.564262  0
25.842098  -29.953426  76.307121  0
25.842098  -32.266644  76.307121  0
25.842098  -32.266644  72.564262  0
24.685490  -29.238605  74.435692  0
24.685490  -32.981468  74.435692  0
26.998707  -29.238605  74.435692  0
26.998707  -32.981468  74.435692  0
27.713530  -31.110037  75.592300  0
23.970667  -31.110037  73.279083  0
23.970667  -31.110037  75.592300  0
27.713530  -31.110037  73.279083  0
25.162260  -29.330198  73.335693  0
25.842098  -28.910036  74.435692  0
26.521936  -29.330198  73.335693  0
24.742096  -30.430199  72.655853  0
24.062260  -30.010035  73.755859  0
25.842098  -31.110035  72.235695  0
24.742096  -31.789873  72.655853  0
26.942101  -30.430199  72.655853  0
26.942101  -31.789873  72.655853  0
27.621937  -30.010035  73.755859  0
26.521936  -29.330198  75.535690  0
25.162260  -29.330198  75.535690  0
26.942101  -30.430199  76.215530  0
27.621937  -30.010035  75.115524  0
25.842098  -31.110035  76.635689  0
26.942101  -31.789873  76.215530  0
24.742096  -30.430199  76.215530  0
24.742096  -31.789873  76.215530  0
24.062260  -30.010035  75.115524  0
26.521936  -32.889874  75.535690  0
27.621937  -32.210037  75.115524  0
25.162260  -32.889874  75.535690  0
25.842098  -33.310036  74.435692  0
24.062260  -32.210037  75.115524  0
23.642097  -31.110037  74.435692  0
24.062260  -32.210037  73.755859  0
27.621937  -32.210037  73.755859  0
26.521936  -32.889874  73.335693  0
25.162260  -32.889874  73.335693  0
28.042099  -31.110037  74.435692  0
33.499481  -29.551060  63.643291  0
33.499481  -29.551058  67.386154  0
33.499481  -31.864279  67.386154  0
33.499481  -31.864277  63.643291  0
32.342873  -28.836237  65.514725  0
32.342873  -32.579102  65.514725  0
34.656090  -28.836237  65.514725  0
34.656090  -32.579102  65.514725  0
35.370914  -30.707668  66.671333  0
31.628050  -30.707668  64.358116  0
31.628050  -30.707668  66.671333  0
35.370914  -30.707668  64.358116  0
32.819645  -28.927830  64.414726  0
33.499481  -28.507668  65.514725  0
34.179317  -28.927830  64.414726  0
32.399483  -30.027832  63.734886  0
31.719645  -29.607670  64.834885  0
33.499481  -30.707668  63.314724  0
32.399483  -31.387505  63.734886  0
34.599480  -30.027832  63.734886  0
34.599480  -31.387505  63.734886  0
35.279320  -29.607672  64.834885  0
34.179317  -28.927830  66.614723  0
32.819645  -28.927830  66.614723  0
34.599480  -30.027832  67.294563  0
35.279320  -29.607672  66.194565  0
33.499481  -30.707668  67.714722  0
34.599480  -31.387505  67.294563  0
32.399483  -30.027832  67.294563  0
32.399483  -31.387505  67.294563  0
31.719645  -29.607670  66.194565  0
34.179317  -32.487507  66.614723  0
35.279320  -31.807667  66.194565  0
32.819645  -32.487507  66.614723  0
33.499481  -32.907669  65.514725  0
31.719646  -31.807669  66.194565  0
31.299480  -30.707668  65.514725  0
31.719646  -31.807669  64.834885  0
35.279320  -31.807667  64.834885  0
34.179317  -32.487507  64.414726  0
32.819645  -32.487507  64.414726  0
35.699482  -30.707668  65.514725  0
40.223961  -27.499956  58.109375  0
40.223961  -27.499956  61.852242  0
40.223961  -29.813173  61.852242  0
40.223961  -29.813173  58.109375  0
39.067352  -26.785133  59.980808  0
39.067352  -30.527996  59.980808  0
41.380569  -26.785133  59.980808  0
41.380569  -30.527996  59.980808  0
42.095394  -28.656565  61.137417  0
38.352528  -28.656565  58.824200  0
38.352528  -28.656565  61.137417  0
42.095394  -28.656565  58.824200  0
39.544125  -26.876728  58.880806  0
40.223961  -26.456564  59.980808  0
40.903797  -26.876728  58.880806  0
39.123962  -27.976727  58.200970  0
38.444122  -27.556566  59.300972  0
40.223961  -28.656565  57.780807  0
39.123962  -29.336403  58.200970  0
41.323959  -27.976727  58.200970  0
41.323959  -29.336403  58.200970  0
42.003799  -27.556566  59.300972  0
40.903797  -26.876728  61.080811  0
39.544125  -26.876728  61.080811  0
41.323959  -27.976727  61.760647  0
42.003799  -27.556566  60.660645  0
40.223961  -28.656565  62.180809  0
41.323959  -29.336403  61.760647  0
39.123962  -27.976727  61.760647  0
39.123962  -29.336403  61.760647  0
38.444122  -27.556566  60.660645  0
40.903797  -30.436401  61.080811  0
42.003799  -29.756563  60.660645  0
39.544125  -30.436401  61.080811  0
40.223961  -30.856565  59.980808  0
38.444122  -29.756563  60.660645  0
38.023960  -28.656565  59.980808  0
38.444122  -29.756563  59.300972  0
42.003799  -29.756563  59.300972  0
40.903797  -30.436401  58.880806  0
39.544125  -30.436401  58.880806  0
42.423962  -28.656565  59.980808  0
46.478146  -29.158472  50.615562  0
46.478146  -29.158472  54.358429  0
46.478146  -31.471689  54.358429  0
46.478146  -31.471689  50.615562  0
45.321537  -28.443649  52.486996  0
45.321537  -32.186512  52.486996  0
47.634754  -28.443649  52.486996  0
47.634754  -32.186512  52.486996  0
48.349579  -30.315081  53.643604  0
44.606712  -30.315081  51.330387  0
44.606712  -30.315081  53.643604  0
48.349579  -30.315081  51.330387  0
45.798309  -28.535244  51.386993  0
46.478146  -28.115080  52.486996  0
47.157982  -28.535244  51.386993  0
45.378143  -29.635242  50.707161  0
44.698311  -29.215080  51.807159  0
46.478146  -30.315081  50.286995  0
45.378143  -30.994919  50.707161  0
47.578148  -29.635242  50.707161  0
47.578148  -30.994919  50.707161  0
48.257980  -29.215080  51.807159  0
47.157982  -28.535244  53.586998  0
45.798309  -28.535244  53.586998  0
47.578148  -29.635242  54.266830  0
48.257980  -29.215080  53.166832  0
46.478146  -30.315081  54.686996  0
47.578148  -30.994919  54.266830  0
45.378143  -29.635242  54.266830  0
45.378143  -30.994919  54.266830  0
44.698311  -29.215080  53.166832  0
47.157982  -32.094917  53.586998  0
48.257980  -31.415081  53.166832  0
45.798309  -32.094917  53.586998  0
46.478146  -32.515079  52.486996  0
44.698311  -31.415081  53.166832  0
44.278145  -30.315081  52.486996  0
44.698311  -31.415081  51.807159  0
48.257980  -31.415081  51.807159  0
47.157982  -32.094917  51.386993  0
45.798309  -32.094917  51.386993  0
48.678146  -30.315081  52.486996  0
51.855103  -26.260345  40.670780  0
51.855103  -26.260345  44.413647  0
51.855103  -28.573563  44.413647  0
51.855103  -28.573563  40.670780  0
50.698494  -25.545523  42.542213  0
50.698494  -29.288385  42.542213  0
53.011711  -25.545523  42.542213  0
53.011711  -29.288385  42.542213  0
53.726536  -27.416954  43.698822  0
49.983669  -27.416954  41.385605  0
49.983669  -27.416954  43.698822  0
53.726536  -27.416954  41.385605  0
51.175266  -25.637115  41.442215  0
51.855103  -25.216953  42.542213  0
52.534939  -25.637115  41.442215  0
50.755104  -26.737118  40.762375  0
50.075264  -26.316956  41.862377  0
51.855103  -27.416954  40.342213  0
50.755104  -28.096790  40.762375  0
52.955101  -26.737118  40.762375  0
52.955101  -28.096790  40.762375  0
53.634941  -26.316956  41.862377  0
52.534939  -25.637115  43.642212  0
51.175266  -25.637115  43.642212  0
52.955101  -26.737118  44.322052  0
53.634941  -26.316956  43.222050  0
51.855103  -27.416954  44.742214  0
52.955101  -28.096790  44.322052  0
50.755104  -26.737118  44.322052  0
50.755104  -28.096790  44.322052  0
50.075264  -26.316956  43.222050  0
52.534939  -29.196793  43.642212  0
53.634941  -28.516953  43.222050  0
51.175266  -29.196793  43.642212  0
51.855103  -29.616955  42.542213  0
50.075264  -28.516953  43.222050  0
49.655102  -27.416954  42.542213  0
50.075264  -28.516953  41.862377  0
53.634941  -28.516953  41.862377  0
52.534939  -29.196793  41.442215  0
51.175266  -29.196793  41.442215  0
54.055103  -27.416954  42.542213  0
53.051006  -25.335899  32.262329  0
53.051006  -25.335899  36.005196  0
53.051006  -27.649117  36.005196  0
53.051006  -27.649117  32.262329  0
51.894398  -24.621077  34.133762  0
51.894398  -28.363939  34.133762  0
54.207615  -24.621077  34.133762  0
54.207615  -28.363939  34.133762  0
54.922440  -26.492508  35.290371  0
51.179573  -26.492508  32.977154  0
51.179573  -26.492508  35.290371  0
54.922440  -26.492508  32.977154  0
52.371170  -24.712673  33.033760  0
53.051006  -24.292507  34.133762  0
53.730843  -24.712673  33.033760  0
51.951004  -25.812670  32.353928  0
51.271168  -25.392508  33.453926  0
53.051006  -26.492508  31.933762  0
51.951004  -27.172346  32.353928  0
54.151009  -25.812670  32.353928  0
54.151009  -27.172346  32.353928  0
54.830845  -25.392508  33.453926  0
53.730843  -24.712673  35.233765  0
52.371170  -24.712673  35.233765  0
54.151009  -25.812670  35.913597  0
54.830845  -25.392508  34.813599  0
53.051006  -26.492508  36.333763  0
54.151009  -27.172346  35.913597  0
51.951004  -25.812670  35.913597  0
51.951004  -27.172346  35.913597  0
51.271168  -25.392508  34.813599  0
53.730843  -28.272343  35.233765  0
54.830845  -27.592508  34.813599  0
52.371170  -28.272343  35.233765  0
53.051006  -28.692509  34.133762  0
51.271168  -27.592508  34.813599  0
50.851006  -26.492508  34.133762  0
51.271168  -27.592508  33.453926  0
54.830845  -27.592508  33.453926  0
53.730843  -28.272343  33.033760  0
52.371170  -28.272343  33.033760  0
55.251007  -26.492508  34.133762  0
12.319305  -74.815254  8.272034  0
12.319305  -74.815254  12.014896  0
12.319305  -77.128471  12.014896  0
12.319305  -77.128471  8.272034  0
11.162696  -74.100433  10.143465  0
11.162696  -77.843292  10.143465  0
13.475915  -74.100433  10.143465  0
13.475915  -77.843292  10.143465  0
14.190737  -75.971863  11.300074  0
10.447874  -75.971863  8.986856  0
10.447874  -75.971863  11.300074  0
14.190737  -75.971863  8.986856  0
11.639469  -74.192024  9.043467  0
12.319305  -73.771866  10.143465  0
12.999142  -74.192024  9.043467  0
11.219306  -75.292023  8.363628  0
10.539468  -74.871864  9.463627  0
12.319305  -75.971863  7.943465  0
11.219306  -76.651703  8.363628  0
13.419305  -75.292023  8.363628  0
13.419305  -76.651703  8.363628  0
14.099143  -74.871864  9.463627  0
12.999142  -74.192024  11.243464  0
11.639469  -74.192024  11.243464  0
13.419305  -75.292023  11.923302  0
14.099143  -74.871864  10.823303  0
12.319305  -75.971863  12.343465  0
13.419305  -76.651703  11.923302  0
11.219306  -75.292023  11.923302  0
11.219306  -76.651703  11.923302  0
10.539468  -74.871864  10.823303  0
12.999142  -77.751701  11.243464  0
14.099143  -77.071861  10.823303  0
11.639469  -77.751701  11.243464  0
12.319305  -78.171860  10.143465  0
10.539468  -77.071861  10.823303  0
10.119306  -75.971863  10.143465  0
10.539468  -77.071861  9.463627  0
14.099143  -77.071861  9.463627  0
12.999142  -77.751701  9.043467  0
11.639469  -77.751701  9.043467  0
14.519305  -75.971863  10.143465  0
18.010035  -68.455597  6.620740  0
18.010035  -68.455597  10.363604  0
18.010035  -70.768814  10.363604  0
18.010035  -70.768814  6.620740  0
16.853424  -67.740776  8.492172  0
16.853424  -71.483635  8.492172  0
19.166645  -67.740776  8.492172  0
19.166645  -71.483635  8.492172  0
19.881466  -69.612206  9.648781  0
16.138603  -69.612206  7.335564  0
16.138603  -69.612206  9.648781  0
19.881466  -69.612206  7.335564  0
17.330196  -67.832367  7.392170  0
18.010035  -67.412209  8.492172  0
18.689873  -67.832367  7.392170  0
16.910032  -68.932373  6.712334  0
16.230196  -68.512207  7.812335  0
18.010035  -69.612206  6.292172  0
16.910032  -70.292038  6.712334  0
19.110037  -68.932373  6.712334  0
19.110037  -70.292038  6.712334  0
19.789873  -68.512207  7.812335  0
18.689873  -67.832367  9.592175  0
17.330196  -67.832367  9.592175  0
19.110037  -68.932373  10.272011  0
19.789873  -68.512207  9.172009  0
18.010035  -69.612206  10.692172  0
19.110037  -70.292038  10.272011  0
16.910032  -68.932373  10.272011  0
16.910032  -70.292038  10.272011  0
16.230196  -68.512207  9.172009  0
18.689873  -71.392044  9.592175  0
19.789873  -70.712204  9.172009  0
17.330196  -71.392044  9.592175  0
18.010035  -71.812202  8.492172  0
16.230196  -70.712204  9.172009  0
15.810035  -69.612206  8.492172  0
16.230196  -70.712204  7.812335  0
19.789873  -70.712204  7.812335  0
18.689873  -71.392044  7.392170  0
17.330196  -71.392044  7.392170  0
20.210035  -69.612206  8.492172  0
26.015423  -59.971363  2.439146  0
26.015423  -59.971363  6.182010  0
26.015423  -62.284580  6.182010  0
26.015423  -62.284580  2.439146  0
24.858814  -59.256538  4.310578  0
24.858814  -62.999405  4.310578  0
27.172031  -59.256538  4.310578  0
27.172031  -62.999405  4.310578  0
27.886854  -61.127972  5.467186  0
24.143991  -61.127972  3.153969  0
24.143991  -61.127972  5.467186  0
27.886854  -61.127972  3.153969  0
25.335585  -59.348133  3.210577  0
26.015423  -58.927971  4.310578  0
26.695261  -59.348133  3.210577  0
24.915424  -60.448135  2.530740  0
24.235588  -60.027969  3.630741  0
26.015423  -61.127972  2.110578  0
24.915424  -61.807808  2.530740  0
27.115421  -60.448135  2.530740  0
27.115421  -61.807808  2.530740  0
27.795258  -60.027969  3.630741  0
26.695261  -59.348133  5.410579  0
25.335585  -59.348133  5.410579  0
27.115421  -60.448135  6.090416  0
27.795258  -60.027969  4.990415  0
26.015423  -61.127972  6.510578  0
27.115421  -61.807808  6.090416  0
24.915424  -60.448135  6.090416  0
24.915424  -61.807808  6.090416  0
24.235588  -60.027969  4.990415  0
26.695261  -62.907810  5.410579  0
27.795258  -62.227974  4.990415  0
25.335585  -62.907810  5.410579  0
26.015423  -63.327972  4.310578  0
24.235588  -62.227974  4.990415  0
23.815422  -61.127972  4.310578  0
24.235588  -62.227974  3.630741  0
27.795258  -62.227974  3.630741  0
26.695261  -62.907810  3.210577  0
25.335585  -62.907810  3.210577  0
28.215424  -61.127972  4.310578  0
32.323463  -54.526447  2.418405  0
32.323463  -54.526447  6.161269  0
32.323463  -56.839664  6.161269  0
32.323463  -56.839664  2.418405  0
31.166855  -53.811623  4.289837  0
31.166855  -57.554489  4.289837  0
33.480072  -53.811623  4.289837  0
33.480072  -57.554489  4.289837  0
34.194897  -55.683056  5.446445  0
30.452032  -55.683056  3.133228  0
30.452032  -55.683056  5.446445  0
34.194897  -55.683056  3.133229  0
31.643625  -53.903217  3.189837  0
32.323463  -53.483055  4.289837  0
33.003300  -53.903217  3.189837  0
31.223465  -55.003220  2.509999  0
30.543629  -54.583054  3.610000  0
32.323463  -55.683056  2.089837  0
31.223465  -56.362892  2.509999  0
33.423462  -55.003220  2.509999  0
33.423462  -56.362892  2.509999  0
34.103302  -54.583054  3.610001  0
33.003300  -53.903217  5.389837  0
31.643625  -53.903217  5.389837  0
33.423462  -55.003220  6.069674  0
34.103302  -54.583054  4.969673  0
32.323463  -55.683056  6.489837  0
33.423462  -56.362892  6.069674  0
31.223465  -55.003220  6.069674  0
31.223465  -56.362892  6.069674  0
30.543629  -54.583054  4.969674  0
33.003300  -57.462894  5.389837  0
34.103302  -56.783058  4.969673  0
31.643625  -57.462894  5.389837  0
32.323463  -57.883057  4.289837  0
30.543629  -56.783058  4.969674  0
30.123463  -55.683056  4.289837  0
30.543629  -56.783058  3.610000  0
34.103302  -56.783058  3.610001  0
33.003300  -57.462894  3.189837  0
31.643625  -57.462894  3.189837  0
34.523464  -55.683056  4.289837  0
33.942699  -15.664391  -24.425432  0
33.942699  -15.664391  -20.682570  0
33.942699  -17.977608  -20.682570  0
33.942699  -17.977608  -24.425432  0
32.786091  -14.949568  -22.554001  0
32.786091  -18.692430  -22.554001  0
35.099308  -14.949568  -22.554001  0
35.099308  -18.692430  -22.554001  0
35.814133  -16.820999  -21.397392  0
32.071266  -16.820999  -23.710609  0
32.071266  -16.820999  -21.397392  0
35.814133  -16.820999  -23.710609  0
33.262863  -15.041162  -23.653999  0
33.942699  -14.620999  -22.554001  0
34.622536  -15.041162  -23.653999  0
32.842697  -16.141161  -24.333836  0
32.162861  -15.720999  -23.233839  0
33.942699  -16.820999  -24.754002  0
32.842697  -17.500837  -24.333836  0
35.042702  -16.141161  -24.333836  0
35.042702  -17.500837  -24.333836  0
35.722538  -15.720999  -23.233839  0
34.622536  -15.041162  -21.454002  0
33.262863  -15.041162  -21.454002  0
35.042702  -16.141161  -20.774166  0
35.722538  -15.720999  -21.874163  0
33.942699  -16.820999  -20.354000  0
35.042702  -17.500837  -20.774166  0
32.842697  -16.141161  -20.774166  0
32.842697  -17.500837  -20.774166  0
32.162861  -15.720999  -21.874163  0
34.622536  -18.600838  -21.454000  0
35.722538  -17.921000  -21.874163  0
33.262863  -18.600838  -21.454000  0
33.942699  -19.021000  -22.554001  0
32.162861  -17.921000  -21.874163  0
31.742699  -16.820999  -22.554001  0
32.162861  -17.921000  -23.233839  0
35.722538  -17.921000  -23.233839  0
34.622536  -18.600838  -23.654001  0
33.262863  -18.600838  -23.654001  0
36.142700  -16.820999  -22.554001  0
25.776100  -16.340391  -25.851431  0
25.776100  -16.340391  -22.108568  0
25.776100  -18.653608  -22.108568  0
25.776100  -18.653608  -25.851431  0
24.619492  -15.625568  -23.980000  0
24.619492  -19.368431  -23.980000  0
26.932709  -15.625568  -23.980000  0
26.932709  -19.368431  -23.980000  0
27.647532  -17.497000  -22.823391  0
23.904669  -17.497000  -25.136608  0
23.904669  -17.497000  -22.823391  0
27.647532  -17.497000  -25.136608  0
25.096262  -15.717162  -25.079998  0
25.776100  -15.297000  -23.980000  0
26.455938  -15.717162  -25.079998  0
24.676100  -16.817162  -25.759838  0
23.996264  -16.396999  -24.659838  0
25.776100  -17.497000  -26.180000  0
24.676100  -18.176838  -25.759838  0
26.876101  -16.817162  -25.759838  0
26.876101  -18.176838  -25.759838  0
27.555937  -16.396999  -24.659838  0
26.455938  -15.717162  -22.880001  0
25.096262  -15.717162  -22.880001  0
26.876101  -16.817162  -22.200161  0
27.555937  -16.396999  -23.300161  0
25.776100  -17.497000  -21.779999  0
26.876101  -18.176838  -22.200161  0
24.676100  -16.817162  -22.200161  0
24.676100  -18.176838  -22.200161  0
23.996264  -16.396999  -23.300161  0
26.455938  -19.276838  -22.880001  0
27.555937  -18.597000  -23.300161  0
25.096262  -19.276838  -22.880001  0
25.776100  -19.697001  -23.980000  0
23.996264  -18.597000  -23.300161  0
23.576099  -17.497000  -23.980000  0
23.996264  -18.597000  -24.659838  0
27.555937  -18.597000  -24.659838  0
26.455938  -19.276838  -25.079998  0
25.096262  -19.276838  -25.079998  0
27.976101  -17.497000  -23.980000  0
17.711201  -17.128391  -17.386433  0
17.711201  -17.128391  -13.643568  0
17.711201  -19.441608  -13.643568  0
17.711201  -19.441608  -17.386433  0
16.554592  -16.413568  -15.515000  0
16.554592  -20.156431  -15.515000  0
18.867809  -16.413568  -15.515000  0
18.867809  -20.156431  -15.515000  0
19.582632  -18.285000  -14.358392  0
15.839768  -18.285000  -16.671608  0
15.839769  -18.285000  -14.358392  0
19.582632  -18.285000  -16.671608  0
17.031363  -16.505163  -16.615000  0
17.711201  -16.084999  -15.515000  0
18.391039  -16.505163  -16.615000  0
16.611202  -17.605162  -17.294838  0
15.931363  -17.184999  -16.194838  0
17.711201  -18.285000  -17.715000  0
16.611202  -18.964838  -17.294838  0
18.811199  -17.605162  -17.294838  0
18.811199  -18.964838  -17.294838  0
19.491039  -17.184999  -16.194838  0
18.391039  -16.505163  -14.415000  0
17.031363  -16.505163  -14.415000  0
18.811199  -17.605162  -13.735163  0
19.491039  -17.184999  -14.835162  0
17.711201  -18.285000  -13.315001  0
18.811199  -18.964838  -13.735163  0
16.611202  -17.605162  -13.735163  0
16.611202  -18.964838  -13.735163  0
15.931363  -17.184999  -14.835162  0
18.391039  -20.064837  -14.415000  0
19.491039  -19.385000  -14.835162  0
17.031363  -20.064837  -14.415000  0
17.711201  -20.485001  -15.515000  0
15.931363  -19.385000  -14.835162  0
15.511201  -18.285000  -15.514999  0
15.931363  -19.385000  -16.194838  0
19.491039  -19.385000  -16.194838  0
18.391039  -20.064837  -16.615000  0
17.031363  -20.064837  -16.615000  0
19.911201  -18.285000  -15.514999  0
11.642300  -16.476391  -12.458431  0
11.642300  -16.476391  -8.715569  0
11.642300  -18.789608  -8.715569  0
11.642300  -18.789608  -12.458431  0
10.485691  -15.761568  -10.587000  0
10.485691  -19.504431  -10.587000  0
12.798908  -15.761568  -10.587000  0
12.798908  -19.504431  -10.587000  0
13.513731  -17.632999  -9.430391  0
9.770868  -17.632999  -11.743608  0
9.770868  -17.632999  -9.430391  0
13.513731  -17.632999  -11.743608  0
10.962461  -15.853163  -11.687000  0
11.642300  -15.433000  -10.587000  0
12.322138  -15.853163  -11.687000  0
10.542299  -16.953161  -12.366838  0
9.862462  -16.533001  -11.266838  0
11.642300  -17.632999  -12.787000  0
10.542299  -18.312838  -12.366838  0
12.742300  -16.953161  -12.366838  0
12.742300  -18.312838  -12.366838  0
13.422137  -16.533001  -11.266838  0
12.322138  -15.853163  -9.487000  0
10.962461  -15.853163  -9.487000  0
12.742300  -16.953161  -8.807162  0
13.422137  -16.533001  -9.907162  0
11.642300  -17.632999  -8.387000  0
12.742300  -18.312838  -8.807162  0
10.542299  -16.953161  -8.807162  0
10.542299  -18.312838  -8.807162  0
9.862462  -16.533001  -9.907162  0
12.322138  -19.412836  -9.487000  0
13.422137  -18.732998  -9.907162  0
10.962461  -19.412836  -9.487000  0
11.642300  -19.833000  -10.587000  0
9.862462  -18.732998  -9.907162  0
9.442300  -17.632999  -10.587000  0
9.862462  -18.732998  -11.266838  0
13.422137  -18.732998  -11.266838  0
12.322138  -19.412836  -11.687000  0
10.962461  -19.412836  -11.687000  0
13.842299  -17.632999  -10.587000  0
43.239700  19.706209  -16.372433  0
43.239700  19.706209  -12.629568  0
43.239700  17.392992  -12.629568  0
43.239700  17.392992  -16.372433  0
42.083092  20.421032  -14.501000  0
42.083092  16.678169  -14.501000  0
44.396309  20.421032  -14.501000  0
44.396309  16.678169  -14.501000  0
45.111134  18.549601  -13.344393  0
41.368267  18.549601  -15.657608  0
41.368267  18.549601  -13.344393  0
45.111134  18.549601  -15.657608  0
42.559864  20.329439  -15.601000  0
43.239700  20.749601  -14.501000  0
43.919537  20.329439  -15.601000  0
42.139702  19.229439  -16.280838  0
41.459862  19.649599  -15.180837  0
43.239700  18.549601  -16.701000  0
42.139702  17.869762  -16.280838  0
44.339699  19.229439  -16.280838  0
44.339699  17.869762  -16.280838  0
45.019539  19.649599  -15.180837  0
43.919537  20.329439  -13.401001  0
42.559864  20.329439  -13.401001  0
44.339699  19.229439  -12.721163  0
45.019539  19.649599  -13.821164  0
43.239700  18.549601  -12.301001  0
44.339699  17.869762  -12.721163  0
42.139702  19.229439  -12.721163  0
42.139702  17.869762  -12.721163  0
41.459862  19.649599  -13.821164  0
43.919537  16.769762  -13.401001  0
45.019539  17.449602  -13.821164  0
42.559864  16.769762  -13.401001  0
43.239700  16.349600  -14.501000  0
41.459862  17.449602  -13.821164  0
41.039700  18.549601  -14.501000  0
41.459862  17.449602  -15.180837  0
45.019539  17.449602  -15.180837  0
43.919537  16.769762  -15.601000  0
42.559864  16.769762  -15.601000  0
45.439701  18.549601  -14.501000  0
36.972698  24.687809  -11.434631  0
36.972698  24.687809  -7.691768  0
36.972698  22.374592  -7.691768  0
36.972698  22.374592  -11.434631  0
35.816090  25.402632  -9.563200  0
35.816090  21.659769  -9.563200  0
38.129307  25.402632  -9.563200  0
38.129307  21.659769  -9.563200  0
38.844131  23.531200  -8.406592  0
35.101265  23.531200  -10.719808  0
35.101265  23.531200  -8.406592  0
38.844131  23.531200  -10.719808  0
36.292862  25.311037  -10.663200  0
36.972698  25.731201  -9.563200  0
37.652534  25.311037  -10.663200  0
35.872696  24.211037  -11.343037  0
35.192860  24.631201  -10.243038  0
36.972698  23.531200  -11.763200  0
35.872696  22.851364  -11.343037  0
38.072701  24.211037  -11.343037  0
38.072701  22.851364  -11.343037  0
38.752537  24.631201  -10.243038  0
37.652534  25.311037  -8.463200  0
36.292862  25.311037  -8.463200  0
38.072701  24.211037  -7.783364  0
38.752537  24.631201  -8.883362  0
36.972698  23.531200  -7.363200  0
38.072701  22.851364  -7.783364  0
35.872696  24.211037  -7.783364  0
35.872696  22.851364  -7.783364  0
35.192860  24.631201  -8.883362  0
37.652534  21.751364  -8.463200  0
38.752537  22.431200  -8.883362  0
36.292862  21.751364  -8.463200  0
36.972698  21.331200  -9.563200  0
35.192860  22.431200  -8.883362  0
34.772697  23.531200  -9.563200  0
35.192860  22.431200  -10.243038  0
38.752537  22.431200  -10.243038  0
37.652534  21.751364  -10.663200  0
36.292862  21.751364  -10.663200  0
39.172699  23.531200  -9.563200  0
27.611900  30.748909  -7.679932  0
27.611900  30.748909  -3.937068  0
27.611900  28.435692  -3.937068  0
27.611900  28.435692  -7.679932  0
26.455292  31.463732  -5.808500  0
26.455292  27.720869  -5.808500  0
28.768509  31.463732  -5.808500  0
28.768509  27.720869  -5.808500  0
29.483332  29.592300  -4.651891  0
25.740469  29.592300  -6.965108  0
25.740469  29.592300  -4.651891  0
29.483332  29.592300  -6.965108  0
26.932062  31.372137  -6.908501  0
27.611900  31.792301  -5.808500  0
28.291739  31.372137  -6.908501  0
26.511902  30.272139  -7.588338  0
25.832062  30.692301  -6.488338  0
27.611900  29.592300  -8.008500  0
26.511902  28.912462  -7.588338  0
28.711899  30.272139  -7.588338  0
28.711899  28.912462  -7.588338  0
29.391739  30.692301  -6.488338  0
28.291739  31.372137  -4.708499  0
26.932062  31.372137  -4.708499  0
28.711899  30.272139  -4.028662  0
29.391739  30.692301  -5.128662  0
27.611900  29.592300  -3.608500  0
28.711899  28.912462  -4.028662  0
26.511902  30.272139  -4.028662  0
26.511902  28.912462  -4.028662  0
25.832062  30.692301  -5.128662  0
28.291739  27.812464  -4.708499  0
29.391739  28.492300  -5.128662  0
26.932062  27.812464  -4.708499  0
27.611900  27.392300  -5.808500  0
25.832062  28.492300  -5.128662  0
25.411900  29.592300  -5.808500  0
25.832062  28.492300  -6.488338  0
29.391739  28.492300  -6.488338  0
28.291739  27.812464  -6.908501  0
26.932062  27.812464  -6.908501  0
29.811901  29.592300  -5.808500  0
20.752899  35.459007  -3.930732  0
20.752899  35.459007  -0.187868  0
20.752899  33.145790  -0.187868  0
20.752899  33.145790  -3.930732  0
19.596291  36.173832  -2.059300  0
19.596291  32.430965  -2.059300  0
21.909508  36.173832  -2.059300  0
21.909508  32.430965  -2.059300  0
22.624331  34.302399  -0.902691  0
18.881468  34.302399  -3.215909  0
18.881468  34.302399  -0.902691  0
22.624331  34.302399  -3.215909  0
20.073063  36.082237  -3.159299  0
20.752899  36.502399  -2.059300  0
21.432735  36.082237  -3.159299  0
19.652901  34.982235  -3.839138  0
18.973061  35.402397  -2.739138  0
20.752899  34.302399  -4.259300  0
19.652901  33.622562  -3.839138  0
21.852898  34.982235  -3.839138  0
21.852898  33.622562  -3.839138  0
22.532738  35.402397  -2.739138  0
21.432735  36.082237  -0.959301  0
20.073063  36.082237  -0.959301  0
21.852898  34.982235  -0.279462  0
22.532738  35.402397  -1.379462  0
20.752899  34.302399  0.140700  0
21.852898  33.622562  -0.279462  0
19.652901  34.982235  -0.279462  0
19.652901  33.622562  -0.279462  0
18.973061  35.402397  -1.379462  0
21.432735  32.522560  -0.959301  0
22.532738  33.202400  -1.379462  0
20.073063  32.522560  -0.959301  0
20.752899  32.102398  -2.059300  0
18.973061  33.202400  -1.379462  0
18.552898  34.302399  -2.059300  0
18.973061  33.202400  -2.739138  0
22.532738  33.202400  -2.739138  0
21.432735  32.522560  -3.159299  0
20.073063  32.522560  -3.159299  0
22.952900  34.302399  -2.059300  0
1.649800  54.886707  7.983808  0
1.649800  54.886707  11.726671  0
1.649800  52.573490  11.726671  0
1.649800  52.573490  7.983808  0
0.493192  55.601532  9.855240  0
0.493192  51.858665  9.855240  0
2.806408  55.601532  9.855240  0
2.806408  51.858665  9.855240  0
3.521232  53.730099  11.011848  0
-0.221632  53.730099  8.698631  0
-0.221632  53.730099  11.011848  0
3.521232  53.730099  8.698631  0
0.969962  55.509937  8.755239  0
1.649800  55.930099  9.855240  0
2.329638  55.509937  8.755239  0
0.549800  54.409935  8.075402  0
-0.130036  54.830101  9.175403  0
1.649800  53.730099  7.655240  0
0.549800  53.050262  8.075402  0
2.749800  54.409935  8.075402  0
2.749800  53.050262  8.075402  0
3.429636  54.830101  9.175403  0
2.329638  55.509937  10.955240  0
0.969962  55.509937  10.955240  0
2.749800  54.409935  11.635077  0
3.429636  54.830101  10.535077  0
1.649800  53.730099  12.055240  0
2.749800  53.050262  11.635077  0
0.549800  54.409935  11.635077  0
0.549800  53.050262  11.635077  0
-0.130036  54.830101  10.535077  0
2.329638  51.950260  10.955240  0
3.429636  52.630096  10.535077  0
0.969962  51.950260  10.955240  0
1.649800  51.530098  9.855240  0
-0.130036  52.630096  10.535077  0
-0.550200  53.730099  9.855240  0
-0.130036  52.630096  9.175403  0
3.429636  52.630096  9.175403  0
2.329638  51.950260  8.755239  0
0.969962  51.950260  8.755239  0
3.849800  53.730099  9.855240  0
-1.727600  64.276703  6.440026  0
-1.727600  64.276703  10.182893  0
-1.727600  61.963490  10.182892  0
-1.727600  61.963490  6.440028  0
-2.884208  64.991531  8.311460  0
-2.884208  61.248665  8.311460  0
-0.570992  64.991531  8.311460  0
-0.570992  61.248665  8.311460  0
0.143832  63.120098  9.468068  0
-3.599032  63.120098  7.154851  0
-3.599032  63.120098  9.468068  0
0.143832  63.120098  7.154851  0
-2.407438  64.899933  7.211459  0
-1.727600  65.320099  8.311460  0
-1.047762  64.899933  7.211459  0
-2.827600  63.799934  6.531622  0
-3.507436  64.220100  7.631622  0
-1.727600  63.120094  6.111460  0
-2.827600  62.440262  6.531622  0
-0.627600  63.799934  6.531622  0
-0.627600  62.440262  6.531622  0
0.052236  64.220100  7.631622  0
-1.047762  64.899933  9.411460  0
-2.407438  64.899933  9.411460  0
-0.627600  63.799934  10.091297  0
0.052236  64.220100  8.991297  0
-1.727600  63.120094  10.511459  0
-0.627600  62.440262  10.091297  0
-2.827600  63.799934  10.091297  0
-2.827600  62.440262  10.091297  0
-3.507436  64.220100  8.991297  0
-1.047762  61.340260  9.411460  0
0.052236  62.020096  8.991297  0
-2.407438  61.340260  9.411460  0
-1.727600  60.920097  8.311460  0
-3.507436  62.020096  8.991297  0
-3.927600  63.120098  8.311460  0
-3.507436  62.020096  7.631622  0
0.052236  62.020096  7.631622  0
-1.047762  61.340260  7.211459  0
-2.407438  61.340260  7.211459  0
0.472400  63.120098  8.311460  0
3.818450  73.383507  5.775838  0
3.818450  73.383507  9.518702  0
3.818450  71.070290  9.518702  0
3.818450  71.070290  5.775838  0
2.661840  74.098328  7.647270  0
2.661840  70.355469  7.647270  0
4.975060  74.098328  7.647270  0
4.975060  70.355469  7.647270  0
5.689882  72.226898  8.803879  0
1.947018  72.226898  6.490662  0
1.947018  72.226898  8.803879  0
5.689882  72.226898  6.490662  0
3.138613  74.006737  6.547272  0
3.818450  74.426895  7.647270  0
4.498287  74.006737  6.547272  0
2.718451  72.906738  5.867434  0
2.038612  73.326897  6.967432  0
3.818450  72.226898  5.447270  0
2.718451  71.547058  5.867434  0
4.918449  72.906738  5.867434  0
4.918449  71.547058  5.867434  0
5.598288  73.326897  6.967432  0
4.498287  74.006737  8.747269  0
3.138613  74.006737  8.747269  0
4.918449  72.906738  9.427107  0
5.598288  73.326897  8.327108  0
3.818450  72.226898  9.847270  0
4.918449  71.547058  9.427107  0
2.718451  72.906738  9.427107  0
2.718451  71.547058  9.427107  0
2.038612  73.326897  8.327108  0
4.498287  70.447060  8.747269  0
5.598288  71.126900  8.327108  0
3.138613  70.447060  8.747269  0
3.818450  70.026901  7.647270  0
2.038612  71.126900  8.327108  0
1.618450  72.226898  7.647270  0
2.038612  71.126900  6.967432  0
5.598288  71.126900  6.967432  0
4.498287  70.447060  6.547272  0
3.138613  70.447060  6.547272  0
6.018450  72.226898  7.647270  0
14.135300  74.257309  6.775858  0
14.135300  74.257309  10.518723  0
14.135300  71.944092  10.518723  0
14.135300  71.944092  6.775858  0
12.978690  74.972130  8.647290  0
12.978690  71.229271  8.647290  0
15.291909  74.972130  8.647290  0
15.291909  71.229271  8.647290  0
16.006731  73.100700  9.803899  0
12.263868  73.100700  7.490682  0
12.263868  73.100700  9.803899  0
16.006731  73.100700  7.490682  0
13.455461  74.880539  7.547288  0
14.135300  75.300697  8.647290  0
14.815139  74.880539  7.547288  0
13.035299  73.780533  6.867452  0
12.355462  74.200699  7.967453  0
14.135300  73.100700  6.447290  0
13.035299  72.420868  6.867452  0
15.235300  73.780533  6.867452  0
15.235300  72.420868  6.867452  0
15.915137  74.200699  7.967453  0
14.815139  74.880539  9.747293  0
13.455461  74.880539  9.747293  0
15.235300  73.780533  10.427129  0
15.915137  74.200699  9.327128  0
14.135300  73.100700  10.847290  0
15.235300  72.420868  10.427129  0
13.035299  73.780533  10.427129  0
13.035299  72.420868  10.427129  0
12.355462  74.200699  9.327128  0
14.815139  71.320862  9.747293  0
15.915137  72.000702  9.327128  0
13.455461  71.320862  9.747293  0
14.135300  70.900703  8.647290  0
